0.000000 0.000000 0.000000
0.000000 0.000000 0.000000
0.000000 0.000000 0.000000
0.000000 0.000000 0.000000
0.000000 0.000000 0.000000
0.000000 0.000000 0.000000
0.000000 0.000000 0.000000
-0.191395 0.018606 0.981337
-0.191395 0.018606 0.981337
-0.191395 0.018606 0.981337
-0.191395 0.018606 0.981337
-0.191395 0.018606 0.981337
-0.345349 0.034446 1.969288
-0.565829 -0.013121 2.943519
-0.826394 -0.031255 3.908805
-1.018946 0.018507 4.888829
-1.358753 0.005571 5.829235
-1.744589 0.011378 6.751784
-2.084961 -0.010669 7.691817
-2.465437 0.028141 8.615793
-2.931827 0.015511 9.500282
-3.386185 -0.030774 10.389898
-3.933538 0.000770 11.226205
-4.581999 0.004755 11.987442
-5.218210 -0.007624 12.758859
-5.753130 -0.027796 13.603520
-6.427083 -0.056130 14.341751
-7.178006 -0.063271 15.002102
-8.004514 -0.075818 15.564888
-8.844549 -0.047188 16.106664
-9.669597 -0.037921 16.671651
-10.546742 -0.039828 17.151872
-11.453852 -0.043528 17.572750
-12.379834 -0.036252 17.950247
-13.312870 -0.026210 18.309890
-14.252461 -0.028886 18.652177
-15.210548 -0.046316 18.938124
-16.189873 -0.039440 19.140303
-17.174655 -0.035954 19.314060
-18.163056 -0.020702 19.465160
-19.159406 -0.008783 19.549682
-20.152762 -0.011788 19.664730
-21.148549 -0.011264 19.756423
-22.146899 -0.002909 19.813235
-23.145251 -0.006165 19.870520
-24.143966 -0.006627 19.921203
-25.142380 -0.027201 19.973608
-26.140788 -0.023082 20.029872
-27.140091 -0.021548 20.067160
-28.139405 -0.018000 20.104028
-29.137820 -0.011199 20.159895
-30.134493 -0.010967 20.241396
-31.133892 -0.011275 20.276069
-32.132001 -0.002420 20.336898
-33.130143 0.009829 20.396582
-34.126784 0.038840 20.473162
-35.126111 0.047908 20.508717
-36.124945 0.058428 20.555831
-37.122281 0.076588 20.626478
-38.120550 0.087888 20.684197
-39.118865 0.096774 20.741533
-40.114677 0.094194 20.832924
-41.111014 0.109389 20.917077
-42.107388 0.128639 20.999950
-43.105527 0.137334 21.060303
-44.097280 0.143782 21.188310
-45.094170 0.133089 21.266383
-46.092116 0.127190 21.330163
-47.091885 0.106028 21.333932
-48.090500 0.110106 21.386400
-49.086896 0.109806 21.471219
-50.083433 0.124040 21.553141
-51.081569 0.132703 21.613550
-52.079681 0.143517 21.674017
-53.077573 0.148907 21.738692
-54.076312 0.155957 21.788385
-55.075005 0.173197 21.836502
-56.072389 0.175131 21.908765
-57.063825 0.152379 22.037363
-58.063603 0.165394 22.020794
-59.062908 0.166024 22.058051
-60.060055 0.168938 22.133485
-61.058808 0.182881 22.181410
-62.057636 0.186337 22.229693
-63.054907 0.201465 22.301955
-64.054362 0.233013 22.292191
-65.052640 0.221085 22.349623
-66.043307 0.208019 22.485299
-67.038457 0.219459 22.583002
-68.030420 0.225737 22.709375
-69.029167 0.232228 22.758990
-70.025656 0.214022 22.840708
-71.023221 0.204442 22.909787
-72.010979 0.185523 23.064634
-73.009130 0.169408 23.123239
-74.006607 0.148737 23.191146
-75.004379 0.157071 23.257343
-76.002976 0.163619 23.309886
-77.001837 0.149845 23.355574
-78.001159 0.141547 23.391445
-78.999290 0.135889 23.452292
-79.999062 0.134934 23.473639
-80.995499 0.124898 23.557381
-81.994530 0.126080 23.601379
-82.990836 0.129629 23.687174
-83.990272 0.141002 23.718762
-84.989112 0.134450 23.766474
-85.987953 0.156058 23.809485
-86.984605 0.139716 23.889601
-87.982428 0.142182 23.955489
-88.980342 0.144770 24.020009
-89.980039 0.147372 24.044448
-90.978689 0.139276 24.095761
-91.977032 0.126861 24.151955
-92.975119 0.132381 24.213536
-93.969445 0.141241 24.319538
-94.964407 0.148274 24.419551
-95.958659 0.149991 24.526600
-96.948360 0.134838 24.668943
-97.940359 0.096600 24.789262
-98.926772 0.049084 24.946524
-99.917735 0.073799 25.078363
-100.883111 0.071637 25.339215
-101.856520 0.090581 25.567503
-102.826970 0.061170 25.807008
-103.773014 0.029247 26.129471
-104.666455 0.011096 26.578284
-105.536427 0.019151 27.071319
-106.326713 0.026740 27.684010
-107.143389 0.038569 28.260986
-107.905226 0.054984 28.908547
-108.632210 0.055158 29.595201
-109.393722 0.069562 30.243192
-110.042461 0.087197 31.003998
-110.635533 0.102487 31.809002
-111.205997 0.041150 32.628031
-111.772566 0.058726 33.451858
-112.264350 0.067019 34.322536
-112.723892 0.103463 35.209944
-113.071579 0.085985 36.147392
-113.399061 0.102165 37.092111
-113.688179 0.111171 38.049362
-113.868859 0.073225 39.032171
-114.094832 0.046029 40.005925
-114.317716 0.042106 40.980762
-114.474700 0.022507 41.968169
-114.605606 -0.010315 42.959020
-114.750944 -0.014856 43.948392
-114.822727 -0.010686 44.945803
-114.890142 -0.019045 45.943493
-114.974874 -0.024520 46.939882
-115.053275 -0.038891 47.936701
-115.011598 -0.046743 48.935801
-115.038511 -0.058143 49.935374
-115.047720 -0.074124 50.935203
-115.059016 -0.086604 51.935062
-115.061461 -0.095856 52.935016
-115.055034 -0.100154 53.934986
-115.031109 -0.110529 54.934646
